-2.0000 0.5049 5.6790
-2.0000 0.3389 5.7532
-2.0000 0.1729 5.8274
-2.0000 0.0069 5.9016
-2.0000 -0.1591 5.9758
-2.0000 -0.3251 6.0500
-2.0000 -0.4911 6.1242
-2.0000 -0.6571 6.1983
-2.0000 -0.8231 6.2725
-2.0000 -0.9890 6.3467
-2.0000 -1.1550 6.4209
-2.0000 -1.3210 6.4951
-2.0000 0.5791 5.8450
-2.0000 0.6533 6.0110
-2.0000 0.7275 6.1769
-2.0000 0.8017 6.3429
-2.0000 0.8758 6.5089
-2.0000 0.9500 6.6749
-2.0000 1.0242 6.8409
-2.0000 1.0984 7.0069
-2.0000 1.1726 7.1729
-2.0000 1.2468 7.3389
-2.0000 1.3210 7.5049
-1.8182 0.5049 5.6790
-1.8182 0.3389 5.7532
-1.8182 0.1729 5.8274
-1.8182 0.0069 5.9016
-1.8182 -0.1591 5.9758
-1.8182 -0.3251 6.0500
-1.8182 -0.4911 6.1242
-1.8182 -0.6571 6.1983
-1.8182 -0.8231 6.2725
-1.8182 -0.9890 6.3467
-1.8182 -1.1550 6.4209
-1.8182 -1.3210 6.4951
-1.8182 0.5791 5.8450
-1.8182 0.6533 6.0110
-1.8182 0.7275 6.1769
-1.8182 0.8017 6.3429
-1.8182 0.8758 6.5089
-1.8182 0.9500 6.6749
-1.8182 1.0242 6.8409
-1.8182 1.0984 7.0069
-1.8182 1.1726 7.1729
-1.8182 1.2468 7.3389
-1.8182 1.3210 7.5049
-1.6364 0.5049 5.6790
-1.6364 0.3389 5.7532
-1.6364 0.1729 5.8274
-1.6364 0.0069 5.9016
-1.6364 -0.1591 5.9758
-1.6364 -0.3251 6.0500
-1.6364 -0.4911 6.1242
-1.6364 -0.6571 6.1983
-1.6364 -0.8231 6.2725
-1.6364 -0.9890 6.3467
-1.6364 -1.1550 6.4209
-1.6364 -1.3210 6.4951
-1.6364 0.5791 5.8450
-1.6364 0.6533 6.0110
-1.6364 0.7275 6.1769
-1.6364 0.8017 6.3429
-1.6364 0.8758 6.5089
-1.6364 0.9500 6.6749
-1.6364 1.0242 6.8409
-1.6364 1.0984 7.0069
-1.6364 1.1726 7.1729
-1.6364 1.2468 7.3389
-1.6364 1.3210 7.5049
-1.4545 0.5049 5.6790
-1.4545 0.3389 5.7532
-1.4545 0.1729 5.8274
-1.4545 0.0069 5.9016
-1.4545 -0.1591 5.9758
-1.4545 -0.3251 6.0500
-1.4545 -0.4911 6.1242
-1.4545 -0.6571 6.1983
-1.4545 -0.8231 6.2725
-1.4545 -0.9890 6.3467
-1.4545 -1.1550 6.4209
-1.4545 -1.3210 6.4951
-1.4545 0.5791 5.8450
-1.4545 0.6533 6.0110
-1.4545 0.7275 6.1769
-1.4545 0.8017 6.3429
-1.4545 0.8758 6.5089
-1.4545 0.9500 6.6749
-1.4545 1.0242 6.8409
-1.4545 1.0984 7.0069
-1.4545 1.1726 7.1729
-1.4545 1.2468 7.3389
-1.4545 1.3210 7.5049
-1.2727 0.5049 5.6790
-1.2727 0.3389 5.7532
-1.2727 0.1729 5.8274
-1.2727 0.0069 5.9016
-1.2727 -0.1591 5.9758
-1.2727 -0.3251 6.0500
-1.2727 -0.4911 6.1242
-1.2727 -0.6571 6.1983
-1.2727 -0.8231 6.2725
-1.2727 -0.9890 6.3467
-1.2727 -1.1550 6.4209
-1.2727 -1.3210 6.4951
-1.2727 0.5791 5.8450
-1.2727 0.6533 6.0110
-1.2727 0.7275 6.1769
-1.2727 0.8017 6.3429
-1.2727 0.8758 6.5089
-1.2727 0.9500 6.6749
-1.2727 1.0242 6.8409
-1.2727 1.0984 7.0069
-1.2727 1.1726 7.1729
-1.2727 1.2468 7.3389
-1.2727 1.3210 7.5049
-1.0909 0.5049 5.6790
-1.0909 0.3389 5.7532
-1.0909 0.1729 5.8274
-1.0909 0.0069 5.9016
-1.0909 -0.1591 5.9758
-1.0909 -0.3251 6.0500
-1.0909 -0.4911 6.1242
-1.0909 -0.6571 6.1983
-1.0909 -0.8231 6.2725
-1.0909 -0.9890 6.3467
-1.0909 -1.1550 6.4209
-1.0909 -1.3210 6.4951
-1.0909 0.5791 5.8450
-1.0909 0.6533 6.0110
-1.0909 0.7275 6.1769
-1.0909 0.8017 6.3429
-1.0909 0.8758 6.5089
-1.0909 0.9500 6.6749
-1.0909 1.0242 6.8409
-1.0909 1.0984 7.0069
-1.0909 1.1726 7.1729
-1.0909 1.2468 7.3389
-1.0909 1.3210 7.5049
-0.9091 0.5049 5.6790
-0.9091 0.3389 5.7532
-0.9091 0.1729 5.8274
-0.9091 0.0069 5.9016
-0.9091 -0.1591 5.9758
-0.9091 -0.3251 6.0500
-0.9091 -0.4911 6.1242
-0.9091 -0.6571 6.1983
-0.9091 -0.8231 6.2725
-0.9091 -0.9890 6.3467
-0.9091 -1.1550 6.4209
-0.9091 -1.3210 6.4951
-0.9091 0.5791 5.8450
-0.9091 0.6533 6.0110
-0.9091 0.7275 6.1769
-0.9091 0.8017 6.3429
-0.9091 0.8758 6.5089
-0.9091 0.9500 6.6749
-0.9091 1.0242 6.8409
-0.9091 1.0984 7.0069
-0.9091 1.1726 7.1729
-0.9091 1.2468 7.3389
-0.9091 1.3210 7.5049
-0.7273 0.5049 5.6790
-0.7273 0.3389 5.7532
-0.7273 0.1729 5.8274
-0.7273 0.0069 5.9016
-0.7273 -0.1591 5.9758
-0.7273 -0.3251 6.0500
-0.7273 -0.4911 6.1242
-0.7273 -0.6571 6.1983
-0.7273 -0.8231 6.2725
-0.7273 -0.9890 6.3467
-0.7273 -1.1550 6.4209
-0.7273 -1.3210 6.4951
-0.7273 0.5791 5.8450
-0.7273 0.6533 6.0110
-0.7273 0.7275 6.1769
-0.7273 0.8017 6.3429
-0.7273 0.8758 6.5089
-0.7273 0.9500 6.6749
-0.7273 1.0242 6.8409
-0.7273 1.0984 7.0069
-0.7273 1.1726 7.1729
-0.7273 1.2468 7.3389
-0.7273 1.3210 7.5049
-0.5455 0.5049 5.6790
-0.5455 0.3389 5.7532
-0.5455 0.1729 5.8274
-0.5455 0.0069 5.9016
-0.5455 -0.1591 5.9758
-0.5455 -0.3251 6.0500
-0.5455 -0.4911 6.1242
-0.5455 -0.6571 6.1983
-0.5455 -0.8231 6.2725
-0.5455 -0.9890 6.3467
-0.5455 -1.1550 6.4209
-0.5455 -1.3210 6.4951
-0.5455 0.5791 5.8450
-0.5455 0.6533 6.0110
-0.5455 0.7275 6.1769
-0.5455 0.8017 6.3429
-0.5455 0.8758 6.5089
-0.5455 0.9500 6.6749
-0.5455 1.0242 6.8409
-0.5455 1.0984 7.0069
-0.5455 1.1726 7.1729
-0.5455 1.2468 7.3389
-0.5455 1.3210 7.5049
-0.3636 0.5049 5.6790
-0.3636 0.3389 5.7532
-0.3636 0.1729 5.8274
-0.3636 0.0069 5.9016
-0.3636 -0.1591 5.9758
-0.3636 -0.3251 6.0500
-0.3636 -0.4911 6.1242
-0.3636 -0.6571 6.1983
-0.3636 -0.8231 6.2725
-0.3636 -0.9890 6.3467
-0.3636 -1.1550 6.4209
-0.3636 -1.3210 6.4951
-0.3636 0.5791 5.8450
-0.3636 0.6533 6.0110
-0.3636 0.7275 6.1769
-0.3636 0.8017 6.3429
-0.3636 0.8758 6.5089
-0.3636 0.9500 6.6749
-0.3636 1.0242 6.8409
-0.3636 1.0984 7.0069
-0.3636 1.1726 7.1729
-0.3636 1.2468 7.3389
-0.3636 1.3210 7.5049
-0.1818 0.5049 5.6790
-0.1818 0.3389 5.7532
-0.1818 0.1729 5.8274
-0.1818 0.0069 5.9016
-0.1818 -0.1591 5.9758
-0.1818 -0.3251 6.0500
-0.1818 -0.4911 6.1242
-0.1818 -0.6571 6.1983
-0.1818 -0.8231 6.2725
-0.1818 -0.9890 6.3467
-0.1818 -1.1550 6.4209
-0.1818 -1.3210 6.4951
-0.1818 0.5791 5.8450
-0.1818 0.6533 6.0110
-0.1818 0.7275 6.1769
-0.1818 0.8017 6.3429
-0.1818 0.8758 6.5089
-0.1818 0.9500 6.6749
-0.1818 1.0242 6.8409
-0.1818 1.0984 7.0069
-0.1818 1.1726 7.1729
-0.1818 1.2468 7.3389
-0.1818 1.3210 7.5049
0.0000 0.5049 5.6790
0.0000 0.3389 5.7532
0.0000 0.1729 5.8274
0.0000 0.0069 5.9016
0.0000 -0.1591 5.9758
0.0000 -0.3251 6.0500
0.0000 -0.4911 6.1242
0.0000 -0.6571 6.1983
0.0000 -0.8231 6.2725
0.0000 -0.9890 6.3467
0.0000 -1.1550 6.4209
0.0000 -1.3210 6.4951
0.0000 0.5791 5.8450
0.0000 0.6533 6.0110
0.0000 0.7275 6.1769
0.0000 0.8017 6.3429
0.0000 0.8758 6.5089
0.0000 0.9500 6.6749
0.0000 1.0242 6.8409
0.0000 1.0984 7.0069
0.0000 1.1726 7.1729
0.0000 1.2468 7.3389
0.0000 1.3210 7.5049
3.0000 0.0000 6.0000
2.8955 0.0000 6.0055
2.7921 0.0000 6.0219
2.6910 0.0000 6.0489
2.5933 0.0000 6.0865
2.5000 0.0000 6.1340
2.4122 0.0000 6.1910
2.3309 0.0000 6.2569
2.2569 0.0000 6.3309
2.1910 0.0000 6.4122
3.0000 0.0000 6.0000
2.8978 -0.0217 6.0055
2.7966 -0.0432 6.0219
2.6977 -0.0642 6.0489
2.6022 -0.0846 6.0865
2.5109 -0.1040 6.1340
2.4251 -0.1222 6.1910
2.3455 -0.1391 6.2569
2.2731 -0.1545 6.3309
2.2087 -0.1682 6.4122
3.0000 0.0000 6.0000
2.9045 -0.0425 6.0055
2.8101 -0.0846 6.0219
2.7177 -0.1257 6.0489
2.6284 -0.1654 6.0865
2.5432 -0.2034 6.1340
2.4630 -0.2391 6.1910
2.3887 -0.2722 6.2569
2.3211 -0.3023 6.3309
2.2609 -0.3291 6.4122
3.0000 0.0000 6.0000
2.9154 -0.0614 6.0055
2.8318 -0.1222 6.0219
2.7500 -0.1816 6.0489
2.6709 -0.2391 6.0865
2.5955 -0.2939 6.1340
2.5245 -0.3455 6.1910
2.4587 -0.3933 6.2569
2.3988 -0.4368 6.3309
2.3455 -0.4755 6.4122
3.0000 0.0000 6.0000
2.9301 -0.0777 6.0055
2.8609 -0.1545 6.0219
2.7932 -0.2296 6.0489
2.7278 -0.3023 6.0865
2.6654 -0.3716 6.1340
2.6067 -0.4368 6.1910
2.5523 -0.4973 6.2569
2.5027 -0.5523 6.3309
2.4587 -0.6012 6.4122
3.0000 0.0000 6.0000
2.9477 -0.0905 6.0055
2.8960 -0.1801 6.0219
2.8455 -0.2676 6.0489
2.7966 -0.3522 6.0865
2.7500 -0.4330 6.1340
2.7061 -0.5090 6.1910
2.6654 -0.5795 6.2569
2.6284 -0.6436 6.3309
2.5955 -0.7006 6.4122
3.0000 0.0000 6.0000
2.9677 -0.0994 6.0055
2.9358 -0.1977 6.0219
2.9045 -0.2939 6.0489
2.8743 -0.3868 6.0865
2.8455 -0.4755 6.1340
2.8184 -0.5590 6.1910
2.7932 -0.6364 6.2569
2.7704 -0.7068 6.3309
2.7500 -0.7694 6.4122
3.0000 0.0000 6.0000
2.9891 -0.1040 6.0055
2.9783 -0.2068 6.0219
2.9677 -0.3073 6.0489
2.9575 -0.4045 6.0865
2.9477 -0.4973 6.1340
2.9386 -0.5846 6.1910
2.9301 -0.6655 6.2569
2.9223 -0.7391 6.3309
2.9154 -0.8046 6.4122
3.0000 0.0000 6.0000
3.0109 -0.1040 6.0055
3.0217 -0.2068 6.0219
3.0323 -0.3073 6.0489
3.0425 -0.4045 6.0865
3.0523 -0.4973 6.1340
3.0614 -0.5846 6.1910
3.0699 -0.6655 6.2569
3.0777 -0.7391 6.3309
3.0846 -0.8046 6.4122
3.0000 0.0000 6.0000
3.0323 -0.0994 6.0055
3.0642 -0.1977 6.0219
3.0955 -0.2939 6.0489
3.1257 -0.3868 6.0865
3.1545 -0.4755 6.1340
3.1816 -0.5590 6.1910
3.2068 -0.6364 6.2569
3.2296 -0.7068 6.3309
3.2500 -0.7694 6.4122
3.0000 0.0000 6.0000
3.0523 -0.0905 6.0055
3.1040 -0.1801 6.0219
3.1545 -0.2676 6.0489
3.2034 -0.3522 6.0865
3.2500 -0.4330 6.1340
3.2939 -0.5090 6.1910
3.3346 -0.5795 6.2569
3.3716 -0.6436 6.3309
3.4045 -0.7006 6.4122
3.0000 0.0000 6.0000
3.0699 -0.0777 6.0055
3.1391 -0.1545 6.0219
3.2068 -0.2296 6.0489
3.2722 -0.3023 6.0865
3.3346 -0.3716 6.1340
3.3933 -0.4368 6.1910
3.4477 -0.4973 6.2569
3.4973 -0.5523 6.3309
3.5413 -0.6012 6.4122
3.0000 0.0000 6.0000
3.0846 -0.0614 6.0055
3.1682 -0.1222 6.0219
3.2500 -0.1816 6.0489
3.3291 -0.2391 6.0865
3.4045 -0.2939 6.1340
3.4755 -0.3455 6.1910
3.5413 -0.3933 6.2569
3.6012 -0.4368 6.3309
3.6545 -0.4755 6.4122
3.0000 0.0000 6.0000
3.0955 -0.0425 6.0055
3.1899 -0.0846 6.0219
3.2823 -0.1257 6.0489
3.3716 -0.1654 6.0865
3.4568 -0.2034 6.1340
3.5370 -0.2391 6.1910
3.6113 -0.2722 6.2569
3.6789 -0.3023 6.3309
3.7391 -0.3291 6.4122
3.0000 0.0000 6.0000
3.1022 -0.0217 6.0055
3.2034 -0.0432 6.0219
3.3023 -0.0642 6.0489
3.3978 -0.0846 6.0865
3.4891 -0.1040 6.1340
3.5749 -0.1222 6.1910
3.6545 -0.1391 6.2569
3.7269 -0.1545 6.3309
3.7913 -0.1682 6.4122
3.0000 0.0000 6.0000
3.1045 0.0000 6.0055
3.2079 0.0000 6.0219
3.3090 0.0000 6.0489
3.4067 0.0000 6.0865
3.5000 0.0000 6.1340
3.5878 0.0000 6.1910
3.6691 0.0000 6.2569
3.7431 0.0000 6.3309
3.8090 0.0000 6.4122
3.0000 0.0000 6.0000
3.1022 0.0217 6.0055
3.2034 0.0432 6.0219
3.3023 0.0642 6.0489
3.3978 0.0846 6.0865
3.4891 0.1040 6.1340
3.5749 0.1222 6.1910
3.6545 0.1391 6.2569
3.7269 0.1545 6.3309
3.7913 0.1682 6.4122
3.0000 0.0000 6.0000
3.0955 0.0425 6.0055
3.1899 0.0846 6.0219
3.2823 0.1257 6.0489
3.3716 0.1654 6.0865
3.4568 0.2034 6.1340
3.5370 0.2391 6.1910
3.6113 0.2722 6.2569
3.6789 0.3023 6.3309
3.7391 0.3291 6.4122
3.0000 0.0000 6.0000
3.0846 0.0614 6.0055
3.1682 0.1222 6.0219
3.2500 0.1816 6.0489
3.3291 0.2391 6.0865
3.4045 0.2939 6.1340
3.4755 0.3455 6.1910
3.5413 0.3933 6.2569
3.6012 0.4368 6.3309
3.6545 0.4755 6.4122
3.0000 0.0000 6.0000
3.0699 0.0777 6.0055
3.1391 0.1545 6.0219
3.2068 0.2296 6.0489
3.2722 0.3023 6.0865
3.3346 0.3716 6.1340
3.3933 0.4368 6.1910
3.4477 0.4973 6.2569
3.4973 0.5523 6.3309
3.5413 0.6012 6.4122
3.0000 0.0000 6.0000
3.0523 0.0905 6.0055
3.1040 0.1801 6.0219
3.1545 0.2676 6.0489
3.2034 0.3522 6.0865
3.2500 0.4330 6.1340
3.2939 0.5090 6.1910
3.3346 0.5795 6.2569
3.3716 0.6436 6.3309
3.4045 0.7006 6.4122
3.0000 0.0000 6.0000
3.0323 0.0994 6.0055
3.0642 0.1977 6.0219
3.0955 0.2939 6.0489
3.1257 0.3868 6.0865
3.1545 0.4755 6.1340
3.1816 0.5590 6.1910
3.2068 0.6364 6.2569
3.2296 0.7068 6.3309
3.2500 0.7694 6.4122
3.0000 0.0000 6.0000
3.0109 0.1040 6.0055
3.0217 0.2068 6.0219
3.0323 0.3073 6.0489
3.0425 0.4045 6.0865
3.0523 0.4973 6.1340
3.0614 0.5846 6.1910
3.0699 0.6655 6.2569
3.0777 0.7391 6.3309
3.0846 0.8046 6.4122
3.0000 0.0000 6.0000
2.9891 0.1040 6.0055
2.9783 0.2068 6.0219
2.9677 0.3073 6.0489
2.9575 0.4045 6.0865
2.9477 0.4973 6.1340
2.9386 0.5846 6.1910
2.9301 0.6655 6.2569
2.9223 0.7391 6.3309
2.9154 0.8046 6.4122
3.0000 0.0000 6.0000
2.9677 0.0994 6.0055
2.9358 0.1977 6.0219
2.9045 0.2939 6.0489
2.8743 0.3868 6.0865
2.8455 0.4755 6.1340
2.8184 0.5590 6.1910
2.7932 0.6364 6.2569
2.7704 0.7068 6.3309
2.7500 0.7694 6.4122
3.0000 0.0000 6.0000
2.9477 0.0905 6.0055
2.8960 0.1801 6.0219
2.8455 0.2676 6.0489
2.7966 0.3522 6.0865
2.7500 0.4330 6.1340
2.7061 0.5090 6.1910
2.6654 0.5795 6.2569
2.6284 0.6436 6.3309
2.5955 0.7006 6.4122
3.0000 0.0000 6.0000
2.9301 0.0777 6.0055
2.8609 0.1545 6.0219
2.7932 0.2296 6.0489
2.7278 0.3023 6.0865
2.6654 0.3716 6.1340
2.6067 0.4368 6.1910
2.5523 0.4973 6.2569
2.5027 0.5523 6.3309
2.4587 0.6012 6.4122
3.0000 0.0000 6.0000
2.9154 0.0614 6.0055
2.8318 0.1222 6.0219
2.7500 0.1816 6.0489
2.6709 0.2391 6.0865
2.5955 0.2939 6.1340
2.5245 0.3455 6.1910
2.4587 0.3933 6.2569
2.3988 0.4368 6.3309
2.3455 0.4755 6.4122
3.0000 0.0000 6.0000
2.9045 0.0425 6.0055
2.8101 0.0846 6.0219
2.7177 0.1257 6.0489
2.6284 0.1654 6.0865
2.5432 0.2034 6.1340
2.4630 0.2391 6.1910
2.3887 0.2722 6.2569
2.3211 0.3023 6.3309
2.2609 0.3291 6.4122
3.0000 0.0000 6.0000
2.8978 0.0217 6.0055
2.7966 0.0432 6.0219
2.6977 0.0642 6.0489
2.6022 0.0846 6.0865
2.5109 0.1040 6.1340
2.4251 0.1222 6.1910
2.3455 0.1391 6.2569
2.2731 0.1545 6.3309
2.2087 0.1682 6.4122
3.0000 0.0000 6.0000
2.8955 0.0000 6.0055
2.7921 0.0000 6.0219
2.6910 0.0000 6.0489
2.5933 0.0000 6.0865
2.5000 0.0000 6.1340
2.4122 0.0000 6.1910
2.3309 0.0000 6.2569
2.2569 0.0000 6.3309
2.1910 0.0000 6.4122
